166.000000 241.000000 837.047607
166.000000 242.000000 837.710327
166.000000 243.000000 838.396423
166.000000 244.000000 839.106628
166.000000 245.000000 839.841858
166.000000 246.000000 840.603027
166.000000 247.000000 841.391113
166.000000 248.000000 842.207275
166.000000 249.000000 843.052673
166.000000 250.000000 843.928589
166.000000 251.000000 844.836609
166.000000 252.000000 845.778259
166.000000 253.000000 846.755310
166.000000 254.000000 847.769714
166.000000 255.000000 848.823853
166.000000 256.000000 849.920044
166.000000 257.000000 851.061279
166.000000 258.000000 852.250671
166.000000 259.000000 853.491943
166.000000 260.000000 854.789368
166.000000 261.000000 856.147949
166.000000 262.000000 857.573608
166.000000 263.000000 859.073242
166.000000 264.000000 860.655396
166.000000 265.000000 862.330383
166.000000 266.000000 864.111267
166.000000 267.000000 866.014709
166.000000 268.000000 868.062561
166.000000 269.000000 870.284668
166.000000 270.000000 872.723633
166.000000 271.000000 875.443970
166.000000 272.000000 878.552368
166.000000 273.000000 882.251770
166.000000 274.000000 887.038513
166.000000 275.000000 895.641113
167.000000 126.000000 894.083923
167.000000 127.000000 886.509277
167.000000 128.000000 881.916870
167.000000 129.000000 878.320496
167.000000 130.000000 875.281616
167.000000 131.000000 872.613892
167.000000 132.000000 870.217468
167.000000 133.000000 868.031250
167.000000 134.000000 866.014709
167.000000 135.000000 864.139160
167.000000 136.000000 862.383545
167.000000 137.000000 860.731689
167.000000 138.000000 859.171082
167.000000 139.000000 857.691589
167.000000 140.000000 856.285034
167.000000 141.000000 854.944458
167.000000 142.000000 853.664246
167.000000 143.000000 852.439514
167.000000 144.000000 851.266052
167.000000 145.000000 850.140198
167.000000 146.000000 849.058838
167.000000 147.000000 848.019226
167.000000 148.000000 847.018860
167.000000 149.000000 846.055603
167.000000 150.000000 845.127441
167.000000 151.000000 844.232605
167.000000 152.000000 843.369629
167.000000 153.000000 842.536987
167.000000 154.000000 841.733398
167.000000 155.000000 840.957642
167.000000 156.000000 840.208679
167.000000 157.000000 839.485535
167.000000 158.000000 838.787231
167.000000 159.000000 838.113037
167.000000 160.000000 837.462036
167.000000 161.000000 836.833557
167.000000 162.000000 836.226990
167.000000 163.000000 835.641602
167.000000 164.000000 835.076965
167.000000 165.000000 834.532471
167.000000 166.000000 834.007568
167.000000 167.000000 833.501892
167.000000 168.000000 833.014954
167.000000 169.000000 832.546326
167.000000 170.000000 832.095642
167.000000 171.000000 831.662598
167.000000 172.000000 831.246826
167.000000 173.000000 830.848022
167.000000 174.000000 830.465820
167.000000 175.000000 830.100098
167.000000 176.000000 829.750427
167.000000 177.000000 829.416748
167.000000 178.000000 829.098633
167.000000 179.000000 828.796082
167.000000 180.000000 828.508728
167.000000 181.000000 828.236511
167.000000 182.000000 827.979187
167.000000 183.000000 827.736572
167.000000 184.000000 827.508606
167.000000 185.000000 827.295105
167.000000 186.000000 827.095947
167.000000 187.000000 826.911011
167.000000 188.000000 826.740173
167.000000 189.000000 826.583374
167.000000 190.000000 826.440491
167.000000 191.000000 826.311462
167.000000 192.000000 826.196228
167.000000 193.000000 826.094666
167.000000 194.000000 826.006775
167.000000 195.000000 825.932495
167.000000 196.000000 825.871704
167.000000 197.000000 825.824524
167.000000 198.000000 825.790833
167.000000 199.000000 825.770630
167.000000 200.000000 825.763916
167.000000 201.000000 825.770630
167.000000 202.000000 825.790833
167.000000 203.000000 825.824524
167.000000 204.000000 825.871704
167.000000 205.000000 825.932495
167.000000 206.000000 826.006775
167.000000 207.000000 826.094666
167.000000 208.000000 826.196228
167.000000 209.000000 826.311462
167.000000 210.000000 826.440491
167.000000 211.000000 826.583374
167.000000 212.000000 826.740173
167.000000 213.000000 826.911011
167.000000 214.000000 827.095947
167.000000 215.000000 827.295105
167.000000 216.000000 827.508606
167.000000 217.000000 827.736572
167.000000 218.000000 827.979187
167.000000 219.000000 828.236511
167.000000 220.000000 828.508728
167.000000 221.000000 828.796082
167.000000 222.000000 829.098633
167.000000 223.000000 829.416748
167.000000 224.000000 829.750427
167.000000 225.000000 830.100098
167.000000 226.000000 830.465820
167.000000 227.000000 830.848022
167.000000 228.000000 831.246826
167.000000 229.000000 831.662598
167.000000 230.000000 832.095642
167.000000 231.000000 832.546326
167.000000 232.000000 833.014954
167.000000 233.000000 833.501892
167.000000 234.000000 834.007568
167.000000 235.000000 834.532471
167.000000 236.000000 835.076965
167.000000 237.000000 835.641602
167.000000 238.000000 836.226990
167.000000 239.000000 836.833557
167.000000 240.000000 837.462036
167.000000 241.000000 838.113037
167.000000 242.000000 838.787231
167.000000 243.000000 839.485535
167.000000 244.000000 840.208679
167.000000 245.000000 840.957642
167.000000 246.000000 841.733398
167.000000 247.000000 842.536987
167.000000 248.000000 843.369629
167.000000 249.000000 844.232605
167.000000 250.000000 845.127441
167.000000 251.000000 846.055603
167.000000 252.000000 847.018860
167.000000 253.000000 848.019226
167.000000 254.000000 849.058838
167.000000 255.000000 850.140198
167.000000 256.000000 851.266052
167.000000 257.000000 852.439514
167.000000 258.000000 853.664246
167.000000 259.000000 854.944458
167.000000 260.000000 856.285034
167.000000 261.000000 857.691589
167.000000 262.000000 859.171082
167.000000 263.000000 860.731689
167.000000 264.000000 862.383545
167.000000 265.000000 864.139160
167.000000 266.000000 866.014709
167.000000 267.000000 868.031250
167.000000 268.000000 870.217468
167.000000 269.000000 872.613892
167.000000 270.000000 875.281616
167.000000 271.000000 878.320496
167.000000 272.000000 881.916870
167.000000 273.000000 886.509277
167.000000 274.000000 894.083923
168.000000 127.000000 893.144348
168.000000 128.000000 886.143616
168.000000 129.000000 881.697021
168.000000 130.000000 878.182556
168.000000 131.000000 875.200806
168.000000 132.000000 872.577393
168.000000 133.000000 870.217468
168.000000 134.000000 868.062561
168.000000 135.000000 866.073608
168.000000 136.000000 864.222900
168.000000 137.000000 862.489990
168.000000 138.000000 860.859253
168.000000 139.000000 859.318298
168.000000 140.000000 857.857361
168.000000 141.000000 856.468384
168.000000 142.000000 855.144653
168.000000 143.000000 853.880615
168.000000 144.000000 852.671387
168.000000 145.000000 851.512878
168.000000 146.000000 850.401611
168.000000 147.000000 849.334412
168.000000 148.000000 848.308594
168.000000 149.000000 847.321716
168.000000 150.000000 846.371643
168.000000 151.000000 845.456421
168.000000 152.000000 844.574402
168.000000 153.000000 843.723877
168.000000 154.000000 842.903564
168.000000 155.000000 842.112183
168.000000 156.000000 841.348511
168.000000 157.000000 840.611450
168.000000 158.000000 839.900085
168.000000 159.000000 839.213501
168.000000 160.000000 838.550842
168.000000 161.000000 837.911377
168.000000 162.000000 837.294312
168.000000 163.000000 836.699158
168.000000 164.000000 836.125122
168.000000 165.000000 835.571777
168.000000 166.000000 835.038452
168.000000 167.000000 834.524780
168.000000 168.000000 834.030334
168.000000 169.000000 833.554565
168.000000 170.000000 833.097107
168.000000 171.000000 832.657593
168.000000 172.000000 832.235718
168.000000 173.000000 831.831116
168.000000 174.000000 831.443481
168.000000 175.000000 831.072510
168.000000 176.000000 830.717957
168.000000 177.000000 830.379578
168.000000 178.000000 830.057190
168.000000 179.000000 829.750427
168.000000 180.000000 829.459229
168.000000 181.000000 829.183350
168.000000 182.000000 828.922607
168.000000 183.000000 828.676758
168.000000 184.000000 828.445801
168.000000 185.000000 828.229553
168.000000 186.000000 828.027771
168.000000 187.000000 827.840454
168.000000 188.000000 827.667419
168.000000 189.000000 827.508606
168.000000 190.000000 827.363892
168.000000 191.000000 827.233276
168.000000 192.000000 827.116516
168.000000 193.000000 827.013672
168.000000 194.000000 826.924683
168.000000 195.000000 826.849487
168.000000 196.000000 826.787964
168.000000 197.000000 826.740173
168.000000 198.000000 826.706055
168.000000 199.000000 826.685608
168.000000 200.000000 826.678772
168.000000 201.000000 826.685608
168.000000 202.000000 826.706055
168.000000 203.000000 826.740173
168.000000 204.000000 826.787964
168.000000 205.000000 826.849487
168.000000 206.000000 826.924683
168.000000 207.000000 827.013672
168.000000 208.000000 827.116516
168.000000 209.000000 827.233276
168.000000 210.000000 827.363892
168.000000 211.000000 827.508606
168.000000 212.000000 827.667419
168.000000 213.000000 827.840454
168.000000 214.000000 828.027771
168.000000 215.000000 828.229553
168.000000 216.000000 828.445801
168.000000 217.000000 828.676758
168.000000 218.000000 828.922607
168.000000 219.000000 829.183350
168.000000 220.000000 829.459229
168.000000 221.000000 829.750427
168.000000 222.000000 830.057190
168.000000 223.000000 830.379578
168.000000 224.000000 830.717957
168.000000 225.000000 831.072510
168.000000 226.000000 831.443481
168.000000 227.000000 831.831116
168.000000 228.000000 832.235718
168.000000 229.000000 832.657593
168.000000 230.000000 833.097107
168.000000 231.000000 833.554565
168.000000 232.000000 834.030334
168.000000 233.000000 834.524780
168.000000 234.000000 835.038452
168.000000 235.000000 835.571777
168.000000 236.000000 836.125122
168.000000 237.000000 836.699158
168.000000 238.000000 837.294312
168.000000 239.000000 837.911377
168.000000 240.000000 838.550842
168.000000 241.000000 839.213501
168.000000 242.000000 839.900085
168.000000 243.000000 840.611450
168.000000 244.000000 841.348511
168.000000 245.000000 842.112183
168.000000 246.000000 842.903564
168.000000 247.000000 843.723877
168.000000 248.000000 844.574402
168.000000 249.000000 845.456421
168.000000 250.000000 846.371643
168.000000 251.000000 847.321716
168.000000 252.000000 848.308594
168.000000 253.000000 849.334412
168.000000 254.000000 850.401611
168.000000 255.000000 851.512878
168.000000 256.000000 852.671387
168.000000 257.000000 853.880615
168.000000 258.000000 855.144653
168.000000 259.000000 856.468384
168.000000 260.000000 857.857361
168.000000 261.000000 859.318298
168.000000 262.000000 860.859253
168.000000 263.000000 862.489990
168.000000 264.000000 864.222900
168.000000 265.000000 866.073608
168.000000 266.000000 868.062561
168.000000 267.000000 870.217468
168.000000 268.000000 872.577393
168.000000 269.000000 875.200806
168.000000 270.000000 878.182556
168.000000 271.000000 881.697021
168.000000 272.000000 886.143616
168.000000 273.000000 893.144348
169.000000 128.000000 892.583801
169.000000 129.000000 885.928772
169.000000 130.000000 881.588074
169.000000 131.000000 878.136780
169.000000 132.000000 875.200806
169.000000 133.000000 872.613892
169.000000 134.000000 870.284668
169.000000 135.000000 868.156616
169.000000 136.000000 866.191711
169.000000 137.000000 864.362915
169.000000 138.000000 862.650330
169.000000 139.000000 861.038452
169.000000 140.000000 859.515442
169.000000 141.000000 858.071472
169.000000 142.000000 856.698730
169.000000 143.000000 855.390564
169.000000 144.000000 854.141541
169.000000 145.000000 852.946838
169.000000 146.000000 851.802490
169.000000 147.000000 850.704956
169.000000 148.000000 849.651245
169.000000 149.000000 848.638550
169.000000 150.000000 847.664551
169.000000 151.000000 846.727112
169.000000 152.000000 845.824341
169.000000 153.000000 844.954590
169.000000 154.000000 844.116211
169.000000 155.000000 843.307861
169.000000 156.000000 842.528259
169.000000 157.000000 841.776306
169.000000 158.000000 841.050842
169.000000 159.000000 840.351013
169.000000 160.000000 839.675903
169.000000 161.000000 839.024597
169.000000 162.000000 838.396423
169.000000 163.000000 837.790649
169.000000 164.000000 837.206665
169.000000 165.000000 836.643860
169.000000 166.000000 836.101624
169.000000 167.000000 835.579529
169.000000 168.000000 835.076965
169.000000 169.000000 834.593567
169.000000 170.000000 834.128906
169.000000 171.000000 833.682556
169.000000 172.000000 833.254211
169.000000 173.000000 832.843445
169.000000 174.000000 832.450012
169.000000 175.000000 832.073547
169.000000 176.000000 831.713867
169.000000 177.000000 831.370544
169.000000 178.000000 831.043518
169.000000 179.000000 830.732422
169.000000 180.000000 830.437073
169.000000 181.000000 830.157349
169.000000 182.000000 829.892944
169.000000 183.000000 829.643738
169.000000 184.000000 829.409607
169.000000 185.000000 829.190430
169.000000 186.000000 828.985901
169.000000 187.000000 828.796082
169.000000 188.000000 828.620728
169.000000 189.000000 828.459778
169.000000 190.000000 828.313171
169.000000 191.000000 828.180786
169.000000 192.000000 828.062500
169.000000 193.000000 827.958374
169.000000 194.000000 827.868164
169.000000 195.000000 827.791992
169.000000 196.000000 827.729675
169.000000 197.000000 827.681274
169.000000 198.000000 827.646729
169.000000 199.000000 827.625977
169.000000 200.000000 827.619080
169.000000 201.000000 827.625977
169.000000 202.000000 827.646729
169.000000 203.000000 827.681274
169.000000 204.000000 827.729675
169.000000 205.000000 827.791992
169.000000 206.000000 827.868164
169.000000 207.000000 827.958374
169.000000 208.000000 828.062500
169.000000 209.000000 828.180786
169.000000 210.000000 828.313171
169.000000 211.000000 828.459778
169.000000 212.000000 828.620728
169.000000 213.000000 828.796082
169.000000 214.000000 828.985901
169.000000 215.000000 829.190430
169.000000 216.000000 829.409607
169.000000 217.000000 829.643738
169.000000 218.000000 829.892944
169.000000 219.000000 830.157349
169.000000 220.000000 830.437073
169.000000 221.000000 830.732422
169.000000 222.000000 831.043518
169.000000 223.000000 831.370544
169.000000 224.000000 831.713867
169.000000 225.000000 832.073547
169.000000 226.000000 832.450012
169.000000 227.000000 832.843445
169.000000 228.000000 833.254211
169.000000 229.000000 833.682556
169.000000 230.000000 834.128906
169.000000 231.000000 834.593567
169.000000 232.000000 835.076965
169.000000 233.000000 835.579529
169.000000 234.000000 836.101624
169.000000 235.000000 836.643860
169.000000 236.000000 837.206665
169.000000 237.000000 837.790649
169.000000 238.000000 838.396423
169.000000 239.000000 839.024597
169.000000 240.000000 839.675903
169.000000 241.000000 840.351013
169.000000 242.000000 841.050842
169.000000 243.000000 841.776306
169.000000 244.000000 842.528259
169.000000 245.000000 843.307861
169.000000 246.000000 844.116211
169.000000 247.000000 844.954590
169.000000 248.000000 845.824341
169.000000 249.000000 846.727112
169.000000 250.000000 847.664551
169.000000 251.000000 848.638550
169.000000 252.000000 849.651245
169.000000 253.000000 850.704956
169.000000 254.000000 851.802490
169.000000 255.000000 852.946838
169.000000 256.000000 854.141541
169.000000 257.000000 855.390564
169.000000 258.000000 856.698730
169.000000 259.000000 858.071472
169.000000 260.000000 859.515442
169.000000 261.000000 861.038452
169.000000 262.000000 862.650330
169.000000 263.000000 864.362915
169.000000 264.000000 866.191711
169.000000 265.000000 868.156616
169.000000 266.000000 870.284668
169.000000 267.000000 872.613892
169.000000 268.000000 875.200806
169.000000 269.000000 878.136780
169.000000 270.000000 881.588074
169.000000 271.000000 885.928772
169.000000 272.000000 892.583801
170.000000 129.000000 892.318848
170.000000 130.000000 885.857849
170.000000 131.000000 881.588074
170.000000 132.000000 878.182556
170.000000 133.000000 875.281616
170.000000 134.000000 872.723633
170.000000 135.000000 870.419617
170.000000 136.000000 868.314026
170.000000 137.000000 866.369629
170.000000 138.000000 864.559937
170.000000 139.000000 862.865112
170.000000 140.000000 861.270142
170.000000 141.000000 859.763184
170.000000 142.000000 858.334656
170.000000 143.000000 856.976746
170.000000 144.000000 855.682983
170.000000 145.000000 854.447815
170.000000 146.000000 853.266724
170.000000 147.000000 852.135620
170.000000 148.000000 851.051025
170.000000 149.000000 850.010010
170.000000 150.000000 849.009827
170.000000 151.000000 848.048096
170.000000 152.000000 847.122803
170.000000 153.000000 846.231995
170.000000 154.000000 845.374023
170.000000 155.000000 844.547302
170.000000 156.000000 843.750549
170.000000 157.000000 842.982483
170.000000 158.000000 842.241882
170.000000 159.000000 841.527771
170.000000 160.000000 840.839233
170.000000 161.000000 840.175232
170.000000 162.000000 839.535156
170.000000 163.000000 838.918091
170.000000 164.000000 838.323425
170.000000 165.000000 837.750488
170.000000 166.000000 837.198730
170.000000 167.000000 836.667542
170.000000 168.000000 836.156433
170.000000 169.000000 835.664917
170.000000 170.000000 835.192627
170.000000 171.000000 834.739014
170.000000 172.000000 834.303711
170.000000 173.000000 833.886475
170.000000 174.000000 833.486816
170.000000 175.000000 833.104553
170.000000 176.000000 832.739319
170.000000 177.000000 832.390808
170.000000 178.000000 832.058838
170.000000 179.000000 831.743164
170.000000 180.000000 831.443481
170.000000 181.000000 831.159607
170.000000 182.000000 830.891357
170.000000 183.000000 830.638611
170.000000 184.000000 830.401123
170.000000 185.000000 830.178833
170.000000 186.000000 829.971436
170.000000 187.000000 829.778931
170.000000 188.000000 829.601135
170.000000 189.000000 829.437988
170.000000 190.000000 829.289307
170.000000 191.000000 829.155090
170.000000 192.000000 829.035217
170.000000 193.000000 828.929626
170.000000 194.000000 828.838196
170.000000 195.000000 828.760986
170.000000 196.000000 828.697815
170.000000 197.000000 828.648743
170.000000 198.000000 828.613708
170.000000 199.000000 828.592712
170.000000 200.000000 828.585693
170.000000 201.000000 828.592712
170.000000 202.000000 828.613708
170.000000 203.000000 828.648743
170.000000 204.000000 828.697815
170.000000 205.000000 828.760986
170.000000 206.000000 828.838196
170.000000 207.000000 828.929626
170.000000 208.000000 829.035217
170.000000 209.000000 829.155090
170.000000 210.000000 829.289307
170.000000 211.000000 829.437988
170.000000 212.000000 829.601135
170.000000 213.000000 829.778931
170.000000 214.000000 829.971436
170.000000 215.000000 830.178833
170.000000 216.000000 830.401123
170.000000 217.000000 830.638611
170.000000 218.000000 830.891357
170.000000 219.000000 831.159607
170.000000 220.000000 831.443481
170.000000 221.000000 831.743164
170.000000 222.000000 832.058838
170.000000 223.000000 832.390808
170.000000 224.000000 832.739319
170.000000 225.000000 833.104553
170.000000 226.000000 833.486816
170.000000 227.000000 833.886475
170.000000 228.000000 834.303711
170.000000 229.000000 834.739014
170.000000 230.000000 835.192627
170.000000 231.000000 835.664917
170.000000 232.000000 836.156433
170.000000 233.000000 836.667542
170.000000 234.000000 837.198730
170.000000 235.000000 837.750488
170.000000 236.000000 838.323425
170.000000 237.000000 838.918091
170.000000 238.000000 839.535156
170.000000 239.000000 840.175232
170.000000 240.000000 840.839233
170.000000 241.000000 841.527771
170.000000 242.000000 842.241882
170.000000 243.000000 842.982483
170.000000 244.000000 843.750549
170.000000 245.000000 844.547302
170.000000 246.000000 845.374023
170.000000 247.000000 846.231995
170.000000 248.000000 847.122803
170.000000 249.000000 848.048096
170.000000 250.000000 849.009827
170.000000 251.000000 850.010010
170.000000 252.000000 851.051025
170.000000 253.000000 852.135620
170.000000 254.000000 853.266724
170.000000 255.000000 854.447815
170.000000 256.000000 855.682983
170.000000 257.000000 856.976746
170.000000 258.000000 858.334656
170.000000 259.000000 859.763184
170.000000 260.000000 861.270142
170.000000 261.000000 862.865112
170.000000 262.000000 864.559937
170.000000 263.000000 866.369629
170.000000 264.000000 868.314026
170.000000 265.000000 870.419617
170.000000 266.000000 872.723633
170.000000 267.000000 875.281616
170.000000 268.000000 878.182556
170.000000 269.000000 881.588074
170.000000 270.000000 885.857849
170.000000 271.000000 892.318848
171.000000 130.000000 892.318848
171.000000 131.000000 885.928772
171.000000 132.000000 881.697021
171.000000 133.000000 878.320496
171.000000 134.000000 875.443970
171.000000 135.000000 872.907593
171.000000 136.000000 870.623169
171.000000 137.000000 868.535706
171.000000 138.000000 866.608398
171.000000 139.000000 864.814758
171.000000 140.000000 863.135376
171.000000 141.000000 861.555237
171.000000 142.000000 860.062561
171.000000 143.000000 858.647827
171.000000 144.000000 857.303406
171.000000 145.000000 856.022705
171.000000 146.000000 854.800415
171.000000 147.000000 853.631897
171.000000 148.000000 852.513184
171.000000 149.000000 851.440735
171.000000 150.000000 850.411682
171.000000 151.000000 849.423340
171.000000 152.000000 848.473328
171.000000 153.000000 847.559570
171.000000 154.000000 846.680237
171.000000 155.000000 845.833618
171.000000 156.000000 845.018188
171.000000 157.000000 844.232605
171.000000 158.000000 843.475647
171.000000 159.000000 842.746155
171.000000 160.000000 842.043091
171.000000 161.000000 841.365540
171.000000 162.000000 840.712585
171.000000 163.000000 840.083374
171.000000 164.000000 839.477295
171.000000 165.000000 838.893555
171.000000 166.000000 838.331543
171.000000 167.000000 837.790649
171.000000 168.000000 837.270447
171.000000 169.000000 836.770264
171.000000 170.000000 836.289734
171.000000 171.000000 835.828369
171.000000 172.000000 835.385742
171.000000 173.000000 834.961548
171.000000 174.000000 834.555359
171.000000 175.000000 834.166870
171.000000 176.000000 833.795776
171.000000 177.000000 833.441772
171.000000 178.000000 833.104553
171.000000 179.000000 832.783936
171.000000 180.000000 832.479614
171.000000 181.000000 832.191467
171.000000 182.000000 831.919189
171.000000 183.000000 831.662598
171.000000 184.000000 831.421570
171.000000 185.000000 831.195923
171.000000 186.000000 830.985535
171.000000 187.000000 830.790161
171.000000 188.000000 830.609802
171.000000 189.000000 830.444275
171.000000 190.000000 830.293457
171.000000 191.000000 830.157349
171.000000 192.000000 830.035706
171.000000 193.000000 829.928589
171.000000 194.000000 829.835938
171.000000 195.000000 829.757568
171.000000 196.000000 829.693542
171.000000 197.000000 829.643738
171.000000 198.000000 829.608215
171.000000 199.000000 829.586914
171.000000 200.000000 829.579834
171.000000 201.000000 829.586914
171.000000 202.000000 829.608215
171.000000 203.000000 829.643738
171.000000 204.000000 829.693542
171.000000 205.000000 829.757568
171.000000 206.000000 829.835938
171.000000 207.000000 829.928589
171.000000 208.000000 830.035706
171.000000 209.000000 830.157349
171.000000 210.000000 830.293457
171.000000 211.000000 830.444275
171.000000 212.000000 830.609802
171.000000 213.000000 830.790161
171.000000 214.000000 830.985535
171.000000 215.000000 831.195923
171.000000 216.000000 831.421570
171.000000 217.000000 831.662598
171.000000 218.000000 831.919189
171.000000 219.000000 832.191467
171.000000 220.000000 832.479614
171.000000 221.000000 832.783936
171.000000 222.000000 833.104553
171.000000 223.000000 833.441772
171.000000 224.000000 833.795776
171.000000 225.000000 834.166870
171.000000 226.000000 834.555359
171.000000 227.000000 834.961548
171.000000 228.000000 835.385742
171.000000 229.000000 835.828369
171.000000 230.000000 836.289734
171.000000 231.000000 836.770264
171.000000 232.000000 837.270447
171.000000 233.000000 837.790649
171.000000 234.000000 838.331543
171.000000 235.000000 838.893555
171.000000 236.000000 839.477295
171.000000 237.000000 840.083374
171.000000 238.000000 840.712585
171.000000 239.000000 841.365540
171.000000 240.000000 842.043091
171.000000 241.000000 842.746155
171.000000 242.000000 843.475647
171.000000 243.000000 844.232605
171.000000 244.000000 845.018188
171.000000 245.000000 845.833618
171.000000 246.000000 846.680237
171.000000 247.000000 847.559570
171.000000 248.000000 848.473328
171.000000 249.000000 849.423340
171.000000 250.000000 850.411682
171.000000 251.000000 851.440735
171.000000 252.000000 852.513184
171.000000 253.000000 853.631897
171.000000 254.000000 854.800415
171.000000 255.000000 856.022705
171.000000 256.000000 857.303406
171.000000 257.000000 858.647827
171.000000 258.000000 860.062561
171.000000 259.000000 861.555237
171.000000 260.000000 863.135376
171.000000 261.000000 864.814758
171.000000 262.000000 866.608398
171.000000 263.000000 868.535706
171.000000 264.000000 870.623169
171.000000 265.000000 872.907593
171.000000 266.000000 875.443970
171.000000 267.000000 878.320496
171.000000 268.000000 881.697021
171.000000 269.000000 885.928772
171.000000 270.000000 892.318848
172.000000 131.000000 892.583801
172.000000 132.000000 886.143616
172.000000 133.000000 881.916870
172.000000 134.000000 878.552368
172.000000 135.000000 875.689514
172.000000 136.000000 873.167175
172.000000 137.000000 870.896729
172.000000 138.000000 868.823059
172.000000 139.000000 866.909241
172.000000 140.000000 865.128784
172.000000 141.000000 863.462341
172.000000 142.000000 861.894897
172.000000 143.000000 860.414673
172.000000 144.000000 859.012207
172.000000 145.000000 857.679810
172.000000 146.000000 856.411011
172.000000 147.000000 855.200439
172.000000 148.000000 854.043518
172.000000 149.000000 852.936218
172.000000 150.000000 851.875183
172.000000 151.000000 850.857361
172.000000 152.000000 849.880127
172.000000 153.000000 848.941223
172.000000 154.000000 848.038452
172.000000 155.000000 847.170105
172.000000 156.000000 846.334351
172.000000 157.000000 845.529846
172.000000 158.000000 844.755066
172.000000 159.000000 844.008911
172.000000 160.000000 843.290222
172.000000 161.000000 842.597900
172.000000 162.000000 841.931091
172.000000 163.000000 841.288818
172.000000 164.000000 840.670410
172.000000 165.000000 840.075073
172.000000 166.000000 839.502075
172.000000 167.000000 838.950867
172.000000 168.000000 838.420776
172.000000 169.000000 837.911377
172.000000 170.000000 837.422058
172.000000 171.000000 836.952393
172.000000 172.000000 836.501953
172.000000 173.000000 836.070374
172.000000 174.000000 835.657166
172.000000 175.000000 835.262085
172.000000 176.000000 834.884705
172.000000 177.000000 834.524780
172.000000 178.000000 834.182068
172.000000 179.000000 833.856201
172.000000 180.000000 833.546997
172.000000 181.000000 833.254211
172.000000 182.000000 832.977600
172.000000 183.000000 832.717041
172.000000 184.000000 832.472229
172.000000 185.000000 832.243103
172.000000 186.000000 832.029419
172.000000 187.000000 831.831116
172.000000 188.000000 831.647949
172.000000 189.000000 831.479919
172.000000 190.000000 831.326843
172.000000 191.000000 831.188660
172.000000 192.000000 831.065247
172.000000 193.000000 830.956543
172.000000 194.000000 830.862427
172.000000 195.000000 830.782959
172.000000 196.000000 830.717957
172.000000 197.000000 830.667480
172.000000 198.000000 830.631409
172.000000 199.000000 830.609802
172.000000 200.000000 830.602600
172.000000 201.000000 830.609802
172.000000 202.000000 830.631409
172.000000 203.000000 830.667480
172.000000 204.000000 830.717957
172.000000 205.000000 830.782959
172.000000 206.000000 830.862427
172.000000 207.000000 830.956543
172.000000 208.000000 831.065247
172.000000 209.000000 831.188660
172.000000 210.000000 831.326843
172.000000 211.000000 831.479919
172.000000 212.000000 831.647949
172.000000 213.000000 831.831116
172.000000 214.000000 832.029419
172.000000 215.000000 832.243103
172.000000 216.000000 832.472229
172.000000 217.000000 832.717041
172.000000 218.000000 832.977600
172.000000 219.000000 833.254211
172.000000 220.000000 833.546997
172.000000 221.000000 833.856201
172.000000 222.000000 834.182068
172.000000 223.000000 834.524780
172.000000 224.000000 834.884705
172.000000 225.000000 835.262085
172.000000 226.000000 835.657166
172.000000 227.000000 836.070374
172.000000 228.000000 836.501953
172.000000 229.000000 836.952393
172.000000 230.000000 837.422058
172.000000 231.000000 837.911377
172.000000 232.000000 838.420776
172.000000 233.000000 838.950867
172.000000 234.000000 839.502075
172.000000 235.000000 840.075073
172.000000 236.000000 840.670410
172.000000 237.000000 841.288818
172.000000 238.000000 841.931091
172.000000 239.000000 842.597900
172.000000 240.000000 843.290222
172.000000 241.000000 844.008911
172.000000 242.000000 844.755066
172.000000 243.000000 845.529846
172.000000 244.000000 846.334351
172.000000 245.000000 847.170105
172.000000 246.000000 848.038452
172.000000 247.000000 848.941223
172.000000 248.000000 849.880127
172.000000 249.000000 850.857361
172.000000 250.000000 851.875183
172.000000 251.000000 852.936218
172.000000 252.000000 854.043518
172.000000 253.000000 855.200439
172.000000 254.000000 856.411011
172.000000 255.000000 857.679810
172.000000 256.000000 859.012207
172.000000 257.000000 860.414673
172.000000 258.000000 861.894897
172.000000 259.000000 863.462341
172.000000 260.000000 865.128784
172.000000 261.000000 866.909241
172.000000 262.000000 868.823059
172.000000 263.000000 870.896729
172.000000 264.000000 873.167175
172.000000 265.000000 875.689514
172.000000 266.000000 878.552368
172.000000 267.000000 881.916870
172.000000 268.000000 886.143616
172.000000 269.000000 892.583801
173.000000 132.000000 893.144348
173.000000 133.000000 886.509277
173.000000 134.000000 882.251770
173.000000 135.000000 878.881287
173.000000 136.000000 876.020813
173.000000 137.000000 873.504700
173.000000 138.000000 871.242371
173.000000 139.000000 869.177917
173.000000 140.000000 867.273865
173.000000 141.000000 865.503601
173.000000 142.000000 863.847534
173.000000 143.000000 862.290588
173.000000 144.000000 860.820923
173.000000 145.000000 859.429077
173.000000 146.000000 858.107300
173.000000 147.000000 856.849121
173.000000 148.000000 855.649109
173.000000 149.000000 854.502747
173.000000 150.000000 853.406006
173.000000 151.000000 852.355469
173.000000 152.000000 851.348145
173.000000 153.000000 850.381470
173.000000 154.000000 849.453003
173.000000 155.000000 848.560730
173.000000 156.000000 847.702759
173.000000 157.000000 846.877502
173.000000 158.000000 846.083374
173.000000 159.000000 845.319092
173.000000 160.000000 844.583374
173.000000 161.000000 843.875122
173.000000 162.000000 843.193298
173.000000 163.000000 842.536987
173.000000 164.000000 841.905273
173.000000 165.000000 841.297363
173.000000 166.000000 840.712585
173.000000 167.000000 840.150208
173.000000 168.000000 839.609619
173.000000 169.000000 839.090210
173.000000 170.000000 838.591553
173.000000 171.000000 838.113037
173.000000 172.000000 837.654175
173.000000 173.000000 837.214661
173.000000 174.000000 836.794006
173.000000 175.000000 836.391846
173.000000 176.000000 836.007813
173.000000 177.000000 835.641602
173.000000 178.000000 835.292969
173.000000 179.000000 834.961548
173.000000 180.000000 834.647095
173.000000 181.000000 834.349426
173.000000 182.000000 834.068237
173.000000 183.000000 833.803345
173.000000 184.000000 833.554565
173.000000 185.000000 833.321655
173.000000 186.000000 833.104553
173.000000 187.000000 832.903076
173.000000 188.000000 832.717041
173.000000 189.000000 832.546326
173.000000 190.000000 832.390808
173.000000 191.000000 832.250488
173.000000 192.000000 832.125122
173.000000 193.000000 832.014709
173.000000 194.000000 831.919189
173.000000 195.000000 831.838440
173.000000 196.000000 831.772461
173.000000 197.000000 831.721191
173.000000 198.000000 831.684570
173.000000 199.000000 831.662598
173.000000 200.000000 831.655273
173.000000 201.000000 831.662598
173.000000 202.000000 831.684570
173.000000 203.000000 831.721191
173.000000 204.000000 831.772461
173.000000 205.000000 831.838440
173.000000 206.000000 831.919189
173.000000 207.000000 832.014709
173.000000 208.000000 832.125122
173.000000 209.000000 832.250488
173.000000 210.000000 832.390808
173.000000 211.000000 832.546326
173.000000 212.000000 832.717041
173.000000 213.000000 832.903076
173.000000 214.000000 833.104553
173.000000 215.000000 833.321655
173.000000 216.000000 833.554565
173.000000 217.000000 833.803345
173.000000 218.000000 834.068237
173.000000 219.000000 834.349426
173.000000 220.000000 834.647095
173.000000 221.000000 834.961548
173.000000 222.000000 835.292969
173.000000 223.000000 835.641602
173.000000 224.000000 836.007813
173.000000 225.000000 836.391846
173.000000 226.000000 836.794006
173.000000 227.000000 837.214661
173.000000 228.000000 837.654175
173.000000 229.000000 838.113037
173.000000 230.000000 838.591553
173.000000 231.000000 839.090210
173.000000 232.000000 839.609619
173.000000 233.000000 840.150208
173.000000 234.000000 840.712585
173.000000 235.000000 841.297363
173.000000 236.000000 841.905273
173.000000 237.000000 842.536987
173.000000 238.000000 843.193298
173.000000 239.000000 843.875122
173.000000 240.000000 844.583374
173.000000 241.000000 845.319092
173.000000 242.000000 846.083374
173.000000 243.000000 846.877502
173.000000 244.000000 847.702759
173.000000 245.000000 848.560730
173.000000 246.000000 849.453003
173.000000 247.000000 850.381470
173.000000 248.000000 851.348145
173.000000 249.000000 852.355469
173.000000 250.000000 853.406006
173.000000 251.000000 854.502747
173.000000 252.000000 855.649109
173.000000 253.000000 856.849121
173.000000 254.000000 858.107300
173.000000 255.000000 859.429077
173.000000 256.000000 860.820923
173.000000 257.000000 862.290588
173.000000 258.000000 863.847534
173.000000 259.000000 865.503601
173.000000 260.000000 867.273865
173.000000 261.000000 869.177917
173.000000 262.000000 871.242371
173.000000 263.000000 873.504700
173.000000 264.000000 876.020813
173.000000 265.000000 878.881287
173.000000 266.000000 882.251770
173.000000 267.000000 886.509277
173.000000 268.000000 893.144348
174.000000 133.000000 894.083923
174.000000 134.000000 887.038513
174.000000 135.000000 882.708374
174.000000 136.000000 879.311829
174.000000 137.000000 876.441589
174.000000 138.000000 873.923218
174.000000 139.000000 871.662720
174.000000 140.000000 869.602661
174.000000 141.000000 867.704468
174.000000 142.000000 865.941223
174.000000 143.000000 864.292847
174.000000 144.000000 862.744141
174.000000 145.000000 861.283081
174.000000 146.000000 859.900146
174.000000 147.000000 858.587463
174.000000 148.000000 857.338562
174.000000 149.000000 856.147949
174.000000 150.000000 855.011108
174.000000 151.000000 853.923950
174.000000 152.000000 852.883118
174.000000 153.000000 851.885559
174.000000 154.000000 850.928650
174.000000 155.000000 850.010010
174.000000 156.000000 849.127625
174.000000 157.000000 848.279602
174.000000 158.000000 847.464294
174.000000 159.000000 846.680237
174.000000 160.000000 845.925964
174.000000 161.000000 845.200378
174.000000 162.000000 844.502258
174.000000 163.000000 843.830627
174.000000 164.000000 843.184509
174.000000 165.000000 842.563110
174.000000 166.000000 841.965515
174.000000 167.000000 841.391113
174.000000 168.000000 840.839233
174.000000 169.000000 840.309143
174.000000 170.000000 839.800354
174.000000 171.000000 839.312256
174.000000 172.000000 838.844482
174.000000 173.000000 838.396423
174.000000 174.000000 837.967773
174.000000 175.000000 837.558044
174.000000 176.000000 837.166870
174.000000 177.000000 836.794006
174.000000 178.000000 836.439026
174.000000 179.000000 836.101624
174.000000 180.000000 835.781616
174.000000 181.000000 835.478699
174.000000 182.000000 835.192627
174.000000 183.000000 834.923096
174.000000 184.000000 834.670044
174.000000 185.000000 834.433228
174.000000 186.000000 834.212463
174.000000 187.000000 834.007568
174.000000 188.000000 833.818420
174.000000 189.000000 833.644897
174.000000 190.000000 833.486816
174.000000 191.000000 833.344177
174.000000 192.000000 833.216797
174.000000 193.000000 833.104553
174.000000 194.000000 833.007446
174.000000 195.000000 832.925415
174.000000 196.000000 832.858337
174.000000 197.000000 832.806274
174.000000 198.000000 832.769043
174.000000 199.000000 832.746765
174.000000 200.000000 832.739319
174.000000 201.000000 832.746765
174.000000 202.000000 832.769043
174.000000 203.000000 832.806274
174.000000 204.000000 832.858337
174.000000 205.000000 832.925415
174.000000 206.000000 833.007446
174.000000 207.000000 833.104553
174.000000 208.000000 833.216797
174.000000 209.000000 833.344177
174.000000 210.000000 833.486816
174.000000 211.000000 833.644897
174.000000 212.000000 833.818420
174.000000 213.000000 834.007568
174.000000 214.000000 834.212463
174.000000 215.000000 834.433228
174.000000 216.000000 834.670044
174.000000 217.000000 834.923096
174.000000 218.000000 835.192627
174.000000 219.000000 835.478699
174.000000 220.000000 835.781616
174.000000 221.000000 836.101624
174.000000 222.000000 836.439026
174.000000 223.000000 836.794006
174.000000 224.000000 837.166870
174.000000 225.000000 837.558044
174.000000 226.000000 837.967773
174.000000 227.000000 838.396423
174.000000 228.000000 838.844482
174.000000 229.000000 839.312256
174.000000 230.000000 839.800354
174.000000 231.000000 840.309143
174.000000 232.000000 840.839233
174.000000 233.000000 841.391113
174.000000 234.000000 841.965515
174.000000 235.000000 842.563110
174.000000 236.000000 843.184509
174.000000 237.000000 843.830627
174.000000 238.000000 844.502258
174.000000 239.000000 845.200378
174.000000 240.000000 845.925964
174.000000 241.000000 846.680237
174.000000 242.000000 847.464294
174.000000 243.000000 848.279602
174.000000 244.000000 849.127625
174.000000 245.000000 850.010010
174.000000 246.000000 850.928650
174.000000 247.000000 851.885559
174.000000 248.000000 852.883118
174.000000 249.000000 853.923950
174.000000 250.000000 855.011108
174.000000 251.000000 856.147949
174.000000 252.000000 857.338562
174.000000 253.000000 858.587463
174.000000 254.000000 859.900146
174.000000 255.000000 861.283081
174.000000 256.000000 862.744141
174.000000 257.000000 864.292847
174.000000 258.000000 865.941223
174.000000 259.000000 867.704468
174.000000 260.000000 869.602661
174.000000 261.000000 871.662720
174.000000 262.000000 873.923218
174.000000 263.000000 876.441589
174.000000 264.000000 879.311829
174.000000 265.000000 882.708374
174.000000 266.000000 887.038513
174.000000 267.000000 894.083923
175.000000 134.000000 895.641113
175.000000 135.000000 887.752563
175.000000 136.000000 883.296692
175.000000 137.000000 879.850586
175.000000 138.000000 876.956543
175.000000 139.000000 874.426575
175.000000 140.000000 872.161194
175.000000 141.000000 870.100159
175.000000 142.000000 868.203796
175.000000 143.000000 866.444092
175.000000 144.000000 864.800537
175.000000 145.000000 863.257629
175.000000 146.000000 861.803162
175.000000 147.000000 860.427307
175.000000 148.000000 859.122131
175.000000 149.000000 857.881104
175.000000 150.000000 856.698730
175.000000 151.000000 855.570313
175.000000 152.000000 854.491760
175.000000 153.000000 853.459717
175.000000 154.000000 852.471069
175.000000 155.000000 851.523193
175.000000 156.000000 850.613770
175.000000 157.000000 849.740662
175.000000 158.000000 848.902039
175.000000 159.000000 848.096252
175.000000 160.000000 847.321716
175.000000 161.000000 846.577148
175.000000 162.000000 845.861267
175.000000 163.000000 845.172974
175.000000 164.000000 844.511230
175.000000 165.000000 843.875122
175.000000 166.000000 843.263794
175.000000 167.000000 842.676331
175.000000 168.000000 842.112183
175.000000 169.000000 841.570557
175.000000 170.000000 841.050842
175.000000 171.000000 840.552551
175.000000 172.000000 840.075073
175.000000 173.000000 839.617859
175.000000 174.000000 839.180603
175.000000 175.000000 838.762756
175.000000 176.000000 838.363953
175.000000 177.000000 837.983887
175.000000 178.000000 837.622131
175.000000 179.000000 837.278381
175.000000 180.000000 836.952393
175.000000 181.000000 836.643860
175.000000 182.000000 836.352539
175.000000 183.000000 836.078186
175.000000 184.000000 835.820557
175.000000 185.000000 835.579529
175.000000 186.000000 835.354797
175.000000 187.000000 835.146301
175.000000 188.000000 834.953857
175.000000 189.000000 834.777283
175.000000 190.000000 834.616516
175.000000 191.000000 834.471375
175.000000 192.000000 834.341797
175.000000 193.000000 834.227661
175.000000 194.000000 834.128906
175.000000 195.000000 834.045471
175.000000 196.000000 833.977295
175.000000 197.000000 833.924316
175.000000 198.000000 833.886475
175.000000 199.000000 833.863770
175.000000 200.000000 833.856201
175.000000 201.000000 833.863770
175.000000 202.000000 833.886475
175.000000 203.000000 833.924316
175.000000 204.000000 833.977295
175.000000 205.000000 834.045471
175.000000 206.000000 834.128906
175.000000 207.000000 834.227661
175.000000 208.000000 834.341797
175.000000 209.000000 834.471375
175.000000 210.000000 834.616516
175.000000 211.000000 834.777283
175.000000 212.000000 834.953857
175.000000 213.000000 835.146301
175.000000 214.000000 835.354797
175.000000 215.000000 835.579529
175.000000 216.000000 835.820557
175.000000 217.000000 836.078186
175.000000 218.000000 836.352539
175.000000 219.000000 836.643860
175.000000 220.000000 836.952393
175.000000 221.000000 837.278381
175.000000 222.000000 837.622131
175.000000 223.000000 837.983887
175.000000 224.000000 838.363953
175.000000 225.000000 838.762756
175.000000 226.000000 839.180603
175.000000 227.000000 839.617859
175.000000 228.000000 840.075073
175.000000 229.000000 840.552551
175.000000 230.000000 841.050842
175.000000 231.000000 841.570557
175.000000 232.000000 842.112183
175.000000 233.000000 842.676331
175.000000 234.000000 843.263794
175.000000 235.000000 843.875122
175.000000 236.000000 844.511230
175.000000 237.000000 845.172974
175.000000 238.000000 845.861267
175.000000 239.000000 846.577148
175.000000 240.000000 847.321716
175.000000 241.000000 848.096252
175.000000 242.000000 848.902039
175.000000 243.000000 849.740662
175.000000 244.000000 850.613770
175.000000 245.000000 851.523193
175.000000 246.000000 852.471069
175.000000 247.000000 853.459717
175.000000 248.000000 854.491760
175.000000 249.000000 855.570313
175.000000 250.000000 856.698730
175.000000 251.000000 857.881104
175.000000 252.000000 859.122131
175.000000 253.000000 860.427307
175.000000 254.000000 861.803162
175.000000 255.000000 863.257629
175.000000 256.000000 864.800537
175.000000 257.000000 866.444092
175.000000 258.000000 868.203796
175.000000 259.000000 870.100159
175.000000 260.000000 872.161194
175.000000 261.000000 874.426575
175.000000 262.000000 876.956543
175.000000 263.000000 879.850586
175.000000 264.000000 883.296692
175.000000 265.000000 887.752563
175.000000 266.000000 895.641113
176.000000 136.000000 888.686279
176.000000 137.000000 884.031250
176.000000 138.000000 880.506409
176.000000 139.000000 877.572327
176.000000 140.000000 875.020020
176.000000 141.000000 872.741943
176.000000 142.000000 870.674255
176.000000 143.000000 868.775024
176.000000 144.000000 867.015137
176.000000 145.000000 865.373413
176.000000 146.000000 863.833740
176.000000 147.000000 862.383545
176.000000 148.000000 861.012817
176.000000 149.000000 859.713501
176.000000 150.000000 858.478943
176.000000 151.000000 857.303406
176.000000 152.000000 856.182190
176.000000 153.000000 855.111267
176.000000 154.000000 854.087036
176.000000 155.000000 853.106506
176.000000 156.000000 852.166931
176.000000 157.000000 851.266052
176.000000 158.000000 850.401611
176.000000 159.000000 849.571838
176.000000 160.000000 848.775024
176.000000 161.000000 848.009644
176.000000 162.000000 847.274292
176.000000 163.000000 846.567810
176.000000 164.000000 845.888977
176.000000 165.000000 845.236877
176.000000 166.000000 844.610474
176.000000 167.000000 844.008911
176.000000 168.000000 843.431458
176.000000 169.000000 842.877319
176.000000 170.000000 842.345886
176.000000 171.000000 841.836426
176.000000 172.000000 841.348511
176.000000 173.000000 840.881470
176.000000 174.000000 840.434937
176.000000 175.000000 840.008362
176.000000 176.000000 839.601318
176.000000 177.000000 839.213501
176.000000 178.000000 838.844482
176.000000 179.000000 838.493896
176.000000 180.000000 838.161499
176.000000 181.000000 837.846985
176.000000 182.000000 837.550049
176.000000 183.000000 837.270447
176.000000 184.000000 837.007935
176.000000 185.000000 836.762329
176.000000 186.000000 836.533447
176.000000 187.000000 836.321106
176.000000 188.000000 836.125122
176.000000 189.000000 835.945313
176.000000 190.000000 835.781616
176.000000 191.000000 835.633850
176.000000 192.000000 835.501953
176.000000 193.000000 835.385742
176.000000 194.000000 835.285217
176.000000 195.000000 835.200317
176.000000 196.000000 835.130920
176.000000 197.000000 835.076965
176.000000 198.000000 835.038452
176.000000 199.000000 835.015381
176.000000 200.000000 835.007690
176.000000 201.000000 835.015381
176.000000 202.000000 835.038452
176.000000 203.000000 835.076965
176.000000 204.000000 835.130920
176.000000 205.000000 835.200317
176.000000 206.000000 835.285217
176.000000 207.000000 835.385742
176.000000 208.000000 835.501953
176.000000 209.000000 835.633850
176.000000 210.000000 835.781616
176.000000 211.000000 835.945313
176.000000 212.000000 836.125122
176.000000 213.000000 836.321106
176.000000 214.000000 836.533447
176.000000 215.000000 836.762329
176.000000 216.000000 837.007935
176.000000 217.000000 837.270447
176.000000 218.000000 837.550049
176.000000 219.000000 837.846985
176.000000 220.000000 838.161499
176.000000 221.000000 838.493896
176.000000 222.000000 838.844482
176.000000 223.000000 839.213501
176.000000 224.000000 839.601318
176.000000 225.000000 840.008362
176.000000 226.000000 840.434937
176.000000 227.000000 840.881470
176.000000 228.000000 841.348511
176.000000 229.000000 841.836426
176.000000 230.000000 842.345886
176.000000 231.000000 842.877319
176.000000 232.000000 843.431458
176.000000 233.000000 844.008911
176.000000 234.000000 844.610474
176.000000 235.000000 845.236877
176.000000 236.000000 845.888977
176.000000 237.000000 846.567810
176.000000 238.000000 847.274292
176.000000 239.000000 848.009644
176.000000 240.000000 848.775024
176.000000 241.000000 849.571838
176.000000 242.000000 850.401611
